# .PCD v0.7 - Point Cloud Data file format
VERSION 0.7
FIELDS x y z intensity
SIZE 4 4 4 4
TYPE F F F F
COUNT 1 1 1 1
WIDTH 1302
HEIGHT 1
VIEWPOINT 0 0 0 1 0 0 0
POINTS 1302
DATA ascii
3.7292109 -0.51786888 0.2408029 77
3.6676357 -0.50780582 -0.37230688 96
3.7720947 -0.52462488 0.33320519 93
3.6613908 -0.50851125 -0.28430206 91
3.6946487 -0.51459754 -0.19911069 10
3.6963375 -0.51573449 -0.11154204 11
3.6978984 -0.51751745 -0.024020545 13
3.725177 -0.5228374 0.063924193 12
3.6426651 -0.51498741 -0.54519349 99
3.7279859 -0.52949083 0.15229876 89
3.6385098 -0.51596344 -0.45679697 90
3.7234502 -0.53044987 0.24052191 77
3.6638958 -0.52039355 -0.37213981 100
3.7564485 -0.53598481 0.33198899 84
3.6635685 -0.52191007 -0.28465262 91
3.6730785 -0.52480304 -0.19804126 13
3.6886013 -0.527888 -0.11138663 11
3.7040162 -0.5316301 -0.024128087 19
3.7332547 -0.53733563 0.06403131 12
3.6447885 -0.52830207 -0.54582208 93
3.7340531 -0.54373986 0.15256239 97
3.6406415 -0.52927488 -0.45733345 87
3.7197173 -0.54262453 0.24036366 78
3.6463251 -0.53099549 -0.37054983 93
3.7585235 -0.54978627 0.33228701 87
3.6696451 -0.53589451 -0.28531855 91
3.6752028 -0.53826672 -0.19830042 12
3.6946757 -0.5419839 -0.11168136 11
3.7140396 -0.54636204 -0.024272271 87
3.7196 -0.54809541 0.063820928 13
3.6312041 -0.53935981 -0.54408556 93
3.7441182 -0.55795717 0.15297753 94
3.6487095 -0.54282737 -0.4586184 77
3.7316513 -0.55774897 0.24117766 64
3.6602252 -0.5460844 -0.37221596 33
3.7566054 -0.56302947 0.33224705 84
3.6619534 -0.54726112 -0.28488415 51
3.6734216 -0.55052555 -0.19833755 10
3.6908088 -0.55467248 -0.11165655 43
3.7181666 -0.55964017 -0.024362922 84
3.7097754 -0.56000769 0.063665472 63
3.6196384 -0.54998678 -0.54264379 90
3.7283361 -0.56906372 0.15240894 92
3.7415507 -0.57266706 0.24186829 11
3.6505477 -0.55710167 -0.3714399 12
3.7448864 -0.57412332 0.33136648 82
3.6738491 -0.56218034 -0.28602403 11
3.6715028 -0.56342322 -0.19837776 12
3.6830428 -0.56609732 -0.11150249 87
3.7122602 -0.57211238 -0.024368532 92
3.7097998 -0.57335562 0.063653342 84
3.6353216 -0.5653469 -0.54534668 96
3.7263515 -0.58218503 0.15236716 92
3.6409597 -0.56779629 -0.45819923 12
3.7454724 -0.58675194 0.24219179 11
3.6584401 -0.57140881 -0.37249827 12
3.7448533 -0.58762181 0.33149254 57
3.6699193 -0.57476884 -0.28590816 18
3.6794078 -0.57783324 -0.19897275 12
3.6968746 -0.58147341 -0.11205785 100
3.7043359 -0.58424449 -0.024357587 100
3.7137291 -0.58732337 0.063697666 24
3.6392157 -0.57899398 -0.54627591 90
3.7341933 -0.59684664 0.15270099 94
3.6429029 -0.5811699 -0.45874071 12
3.7394817 -0.59932113 0.24190475 11
3.6682429 -0.58608538 -0.37376153 13
3.6757948 -0.58888352 -0.28657925 66
3.6714756 -0.58981931 -0.19868323 12
3.6889238 -0.59352601 -0.11190813 89
3.6943977 -0.59601569 -0.024329945 100
3.7215564 -0.60195196 0.063798301 10
3.6430585 -0.59267485 -0.54720652 96
3.7340848 -0.61030465 0.15273201 84
3.6350002 -0.59299672 -0.4580344 11
3.7295067 -0.61122179 0.24137291 11
3.6563776 -0.59737492 -0.37278736 19
3.6737425 -0.60178107 -0.286623 85
3.6713915 -0.6030274 -0.1988378 21
3.6986954 -0.6083957 -0.11233784 89
3.7041652 -0.61091852 -0.024480715 81
3.7155094 -0.61440086 0.063695885 10
3.6292808 -0.60352421 -0.54547518 86
3.7378728 -0.62441552 0.15291242 73
3.6446841 -0.60765749 -0.45957744 12
3.7313144 -0.6250025 0.24157088 11
3.6562603 -0.6105184 -0.37303546 70
3.6775479 -0.6156407 -0.28713956 93
3.6692898 -0.61591756 -0.19888285 63
3.6847403 -0.6194374 -0.11199757 89
3.7094212 -0.62681472 0.063592359 10
3.6291296 -0.61656082 -0.5458163 34
3.7376661 -0.63789994 0.15294088 100
3.6621392 -0.62370062 -0.46212125 14
3.7448838 -0.64078712 0.24249816 11
3.6639442 -0.62498176 -0.37409917 99
3.6675367 -0.62722445 -0.28655678 91
3.6888046 -0.63244468 -0.20014799 67
3.6806102 -0.63204986 -0.11197978 84
3.7235231 -0.64094985 -0.024786681 13
3.711179 -0.64052939 0.063602746 10
3.7236216 -0.6490311 0.15244122 92
3.6423609 -0.63352996 -0.45991957 12
3.7485514 -0.6549865 0.24281511 13
3.6696107 -0.63917053 -0.37496069 100
3.6614206 -0.63941938 -0.28628954 91
3.6688874 -0.64235187 -0.19919819 13
3.6902266 -0.6470142 -0.11241347 86
3.723259 -0.65437764 -0.024852879 14
3.7325909 -0.65767264 0.063899115 10
3.7292325 -0.66351116 0.15269305 92
3.6323342 -0.64493221 -0.45896798 12
3.7266026 -0.66474217 0.24154827 61
3.6575832 -0.65032798 -0.37399086 100
3.6631198 -0.6529538 -0.28665251 81
3.6705818 -0.65592301 -0.19946857 12
3.6919079 -0.66066945 -0.11259123 86
3.6993113 -0.66364837 -0.024706312 13
3.7302973 -0.67080015 0.063849218 15
3.7406917 -0.67909062 0.15316914 94
3.6515777 -0.66148359 -0.46176583 42
3.7165401 -0.67580527 0.2410135 71
3.6474819 -0.66175824 -0.3732256 100
3.6667325 -0.66685814 -0.28717411 20
3.6723425 -0.66886884 -0.19973768 12
3.6896048 -0.67363864 -0.1126415 61
3.7127445 -0.6794818 -0.024899729 13
3.7123306 -0.68042946 0.063571289 82
3.7482743 -0.69338304 0.15349588 92
3.6630564 -0.67611766 -0.46356326 60
3.7280498 -0.69074082 0.24181619 71
3.6452925 -0.67390931 -0.37327355 99
3.676295 -0.68122214 -0.28816646 13
3.6779864 -0.68254948 -0.20022979 12
3.6991732 -0.68810755 -0.11307686 92
3.7262318 -0.69476175 -0.02509214 13
3.7120447 -0.69319427 0.063550547 93
3.7322211 -0.70336682 0.15291929 94
3.7393796 -0.70641857 0.24261478 77
3.6508875 -0.68750018 -0.3741374 97
3.6760006 -0.69383943 -0.28837341 12
3.675607 -0.69546199 -0.2002821 12
3.6830177 -0.6985392 -0.11267851 95
3.7258976 -0.70757085 -0.02516067 19
3.715524 -0.70735276 0.06358321 87
3.7336957 -0.71724236 0.15301548 94
3.7447615 -0.72107047 0.24304691 67
3.6620562 -0.70352483 -0.37561917 97
3.6695418 -0.70664036 -0.28811467 11
3.688879 -0.71133989 -0.20122331 12
3.6884379 -0.71296912 -0.11299016 95
3.7213407 -0.72094697 -0.025199957 95
3.7248437 -0.72266752 0.063700296 84
3.6968191 -0.72074169 -0.55889595 1
3.7310677 -0.73103821 0.15295734 82
3.7344053 -0.73274434 0.24250489 11
3.6556969 -0.7156139 -0.37526584 67
3.6768675 -0.72140235 -0.28895634 12
3.6803918 -0.72380078 -0.20094806 39
3.697727 -0.72820473 -0.11343225 89
3.7011569 -0.73059887 -0.025093898 27
3.7301753 -0.737293 0.063758686 79
3.6610126 -0.72996277 -0.37613648 75
3.6803489 -0.73480952 -0.28948176 11
3.6760364 -0.73569024 -0.20089024 75
3.6991107 -0.7419672 -0.11361776 87
3.7262061 -0.74838102 -0.02539973 14
3.7158332 -0.74808216 0.063530289 63
3.7260528 -0.75663304 0.15284581 11
3.6836526 -0.74889386 -0.29001135 13
3.6773877 -0.74938011 -0.20116958 93
3.6965237 -0.75496107 -0.11367545 95
3.7255566 -0.76187158 -0.025475979 13
3.7191052 -0.76233578 0.06355758 12
3.715579 -0.76815271 0.15248677 13
3.6750491 -0.76126999 -0.28960007 64
3.6865149 -0.76468402 -0.20189452 93
3.6860571 -0.76634455 -0.11347598 89
3.7188475 -0.77481741 -0.025502294 13
3.7105696 -0.77420974 0.063412644 12
3.7303784 -0.78552949 0.15309852 60
3.6684906 -0.77335429 -0.28934452 91
3.6915348 -0.77989727 -0.20240182 90
3.6871641 -0.78075469 -0.11366823 74
3.7122297 -0.78707153 -0.025526762 13
3.7370958 -0.79404825 0.063775547 55
3.7413275 -0.80154163 0.15356156 100
3.6637082 -0.78645658 -0.28925067 52
3.677093 -0.79037845 -0.20179611 90
3.7210839 -0.80326343 -0.02570048 13
3.7421503 -0.80885428 0.063826807 96
3.7522106 -0.81763959 0.15402293 100
3.6647146 -0.80054462 -0.20129928 66
3.6837678 -0.80642295 -0.11385352 11
3.7184236 -0.81568801 -0.025760546 13
3.7218792 -0.81755471 0.063510925 84
3.7553606 -0.83145911 0.15418637 94
3.6835246 -0.81745201 -0.20258257 13
3.6928141 -0.82127953 -0.11430229 11
3.7274432 -0.83067369 -0.025930867 13
3.7211244 -0.83041847 0.063477956 88
3.7467518 -0.84271711 0.15389934 92
3.6923711 -0.83297914 -0.20331469 24
3.6822891 -0.83186769 -0.11410499 13
3.7285962 -0.84398884 -0.026029781 48
3.7203259 -0.8432861 0.063443832 84
3.7088614 -0.84735096 0.15248913 14
3.6857173 -0.84441453 -0.20315489 60
3.7027862 -0.85008836 -0.11494843 71
3.7140977 -0.85379022 -0.025983796 100
3.7329869 -0.85990691 0.063603118 87
3.7136095 -0.86557299 -0.11546637 94
3.7013738 -0.86460322 -0.025960237 92
3.7397316 -0.87527949 0.06367591 93
3.69891 -0.87589395 -0.11514621 87
3.7178342 -0.8821612 -0.026212461 69
3.7288895 -0.88660735 0.063493282 93
3.6919653 -0.88796502 -0.11508638 87
3.7322702 -0.89938265 -0.026448287 13
3.7102323 -0.89601976 0.063197047 78
3.683038 -0.89953095 -0.11496269 84
3.733022 -0.91343611 -0.02655714 13
3.7090514 -0.90953714 0.063153408 15
3.7337213 -0.92750567 -0.026667327 13
3.7410014 -0.93049347 0.063589774 69
3.7190032 -0.93708128 -0.026627287 13
3.7493999 -0.94654399 0.063683249 90
3.7215524 -0.9516167 -0.026758388 27
3.7305858 -0.95581353 0.063382789 87
3.7259841 -0.96667635 -0.026909478 91
3.7195024 -0.9669475 0.063193664 84
3.7219362 -0.98153603 0.063199207 75
3.6775267 -0.079447113 -0.2944403 13
3.6752777 -0.091674 -0.2942709 73
3.6749809 -0.10393837 -0.29426715 13
3.6486409 -0.11544971 -0.37879348 23
3.6746056 -0.1174925 -0.29426518 13
3.6541877 -0.12908886 -0.37942386 81
3.6662333 -0.13013688 -0.29361036 13
3.6962194 -0.13243631 -0.20861973 14
3.6517565 -0.14183912 -0.37921602 87
3.6617782 -0.14351289 -0.29328537 13
3.6897535 -0.14586093 -0.20827049 75
3.6591926 -0.15561125 -0.38006091 87
3.6692505 -0.15669523 -0.2939449 12
3.6932404 -0.15899627 -0.20850988 91
3.6507084 -0.16810566 -0.37922698 84
3.6806304 -0.17075127 -0.29493445 13
3.6727166 -0.17175075 -0.20734367 93
3.6422122 -0.17990391 -0.37839448 84
3.672138 -0.18201281 -0.29428715 13
3.6801622 -0.183751 -0.20782101 93
3.6415915 -0.19268443 -0.37840492 84
3.6675277 -0.19471043 -0.2939702 13
3.6835148 -0.19689362 -0.20806655 91
3.6895266 -0.19858111 -0.12129627 18
3.652843 -0.20610246 -0.37967807 91
3.6748166 -0.2080217 -0.29463801 40
3.6908088 -0.21027808 -0.20854898 93
3.7008138 -0.21222197 -0.12173468 60
3.6600735 -0.21937373 -0.38053322 87
3.6740603 -0.22157449 -0.29465359 96
3.6820703 -0.22344209 -0.20809534 91
3.6841159 -0.22431995 -0.12118298 10
3.6513352 -0.23237498 -0.37971017 87
3.681252 -0.23496492 -0.29532573 48
3.673326 -0.23589915 -0.20764309 93
3.7112281 -0.23966174 -0.12219369 12
3.6623199 -0.24452031 -0.46852249 53
3.6386228 -0.24442093 -0.3784681 87
3.6784499 -0.24776621 -0.29518101 13
3.6804783 -0.24933246 -0.20813185 91
3.6944418 -0.25168192 -0.12164618 13
3.6594961 -0.25722268 -0.46828681 89
3.6496835 -0.25799564 -0.37974983 81
3.6716261 -0.26028028 -0.29471067 13
3.6796145 -0.26227322 -0.20815325 76
3.6855927 -0.26413664 -0.12138425 12
3.7215219 -0.26742041 -0.034839466 87
3.6388209 -0.26864606 -0.46574569 93
3.6528044 -0.27044338 -0.38019192 41
3.6627715 -0.27260768 -0.2940785 13
3.6847265 -0.27499267 -0.20852774 55
3.6966851 -0.27732316 -0.12183228 12
3.7106206 -0.27980903 -0.03474158 97
3.637939 -0.28076255 -0.46576908 93
3.6677353 -0.28444359 -0.38189822 12
3.6698267 -0.28542453 -0.29475778 12
3.6817827 -0.28779837 -0.20843582 85
3.6917372 -0.2900328 -0.12171622 12
3.6977346 -0.29132164 -0.034619927 89
3.6468549 -0.29428163 -0.46707779 100
3.650887 -0.29607329 -0.38024378 12
3.6688375 -0.29831409 -0.29478502 13
3.672823 -0.30011681 -0.2079936 95
3.706671 -0.30428755 -0.12231167 12
3.7027042 -0.30482477 -0.034721226 86
3.7664289 -0.31141597 0.053387508 1
3.6458359 -0.3070634 -0.46710652 88
3.6478789 -0.3087213 -0.38006255 13
3.6757498 -0.31185022 -0.29546982 13
3.6797419 -0.31368503 -0.20849301 91
3.6896799 -0.31601667 -0.12177402 24
3.7076249 -0.31836596 -0.034824714 87
3.7195079 -0.32088181 0.052848205 76
3.6467485 -0.32000881 -0.46739376 49
3.6468089 -0.32152054 -0.38009363 13
3.6706967 -0.32442132 -0.29517347 45
3.682632 -0.32696384 -0.20875964 93
3.7005308 -0.33003202 -0.12223195 49
3.7124968 -0.33194506 -0.034930438 92
3.7283547 -0.33486459 0.052925959 35
3.6416883 -0.33244169 -0.4669137 89
3.6595626 -0.33554411 -0.38159844 12
3.6656005 -0.336961 -0.29487911 96
3.6854746 -0.34026641 -0.20902842 91
3.6954038 -0.34269926 -0.1221242 12
3.7013848 -0.34412983 -0.034842551 87
3.7351584 -0.34873307 0.052979335 13
3.6385612 -0.3450242 -0.46669209 90
3.66242 -0.34810576 -0.38205248 14
3.6684017 -0.35020193 -0.29524249 94
3.6724255 -0.35147229 -0.20835748 93
3.6942744 -0.35505515 -0.12215863 12
3.696207 -0.35679892 -0.034830049 76
3.7439642 -0.36217949 0.053054392 14
3.6453249 -0.35788938 -0.46775314 90
3.6631927 -0.36114401 -0.38230008 37
3.6731391 -0.36365637 -0.29577196 97
3.6791556 -0.36514804 -0.20886543 93
3.6970205 -0.36844113 -0.12233898 12
3.6949675 -0.36982182 -0.034868613 16
3.7207456 -0.37391207 0.052770898 13
3.7385666 -0.37658319 0.14139405 12
3.6479685 -0.3716934 -0.46830717 88
3.640105 -0.37248161 -0.38002813 86
3.6777635 -0.37779376 -0.29630569 100
3.6738498 -0.37833378 -0.20867239 67
3.6877203 -0.38130632 -0.12209725 12
3.7035663 -0.3844918 -0.035034046 19
3.7253492 -0.38829347 0.052793577 14
3.7391791 -0.39064312 0.1414189 82
3.6505604 -0.38552126 -0.46886355 100
3.6565533 -0.38772136 -0.38196462 29
3.6685209 -0.38989332 -0.29569173 97
3.6923289 -0.39395037 -0.20989235 12
3.6863961 -0.39428538 -0.12213978 12
3.7181432 -0.39919689 -0.035273492 84
3.7299659 -0.40205565 0.052816048 48
3.7239046 -0.4023855 0.14089555 96
3.6433735 -0.39705038 -0.46813497 93
3.6513209 -0.3994891 -0.3815853 10
3.6632721 -0.40171191 -0.29540545 75
3.6850746 -0.40564653 -0.20958185 13
3.6890707 -0.40703657 -0.12232432 12
3.7068839 -0.41057265 -0.035193533 100
3.7286389 -0.41455242 0.052772701 99
3.7225761 -0.41487557 0.14085215 82
3.6341794 -0.40832135 -0.46715158 93
3.6638446 -0.41317341 -0.38310128 12
3.6816914 -0.41675436 -0.29709175 15
3.6877062 -0.41839159 -0.20986116 12
3.6995766 -0.42133796 -0.12279777 12
3.6895556 -0.42186746 -0.035043821 87
3.72521 -0.42748055 0.052703112 92
3.7350388 -0.42957142 0.1412836 87
3.6445165 -0.42302728 -0.46874085 96
3.7500684 -0.43829238 0.2307891 17
3.656409 -0.4259991 -0.38252026 12
3.6801705 -0.43033051 -0.29714248 13
3.6742768 -0.43064985 -0.20920625 12
3.7119386 -0.43659711 -0.12334728 18
3.6999359 -0.43688381 -0.035243154 89
3.7137139 -0.44013107 0.052541271 94
3.7314825 -0.44318745 0.14116254 57
3.6429744 -0.43643829 -0.4687928 78
3.7425163 -0.45150995 0.23039037 65
3.6509039 -0.43900681 -0.38215184 12
3.6925342 -0.44487715 -0.29834157 60
3.692534 -0.44654369 -0.21043609 30
3.6965261 -0.44802359 -0.12290029 60
3.7063611 -0.45085835 -0.035393193 87
3.7339106 -0.45683321 0.14124709 12
3.7350771 -0.46335769 0.22999489 13
3.6553817 -0.45188677 -0.38283247 12
3.66732 -0.4543367 -0.29642212 91
3.691061 -0.45887607 -0.21048637 81
3.7029848 -0.46134391 -0.12323563 90
3.7128136 -0.46422866 -0.035542846 89
3.7305388 -0.46808872 0.052656695 14
3.726449 -0.46862817 0.14099029 10
3.6380901 -0.46044898 -0.46863586 11
3.7533612 -0.47835532 0.23109075 63
3.6578398 -0.46455726 -0.38330474 13
3.6618655 -0.46608275 -0.29614541 97
3.687566 -0.47095734 -0.21042079 79
3.6994791 -0.47347718 -0.1232169 94
3.695406 -0.47467116 -0.035398006 89
3.7289929 -0.48058698 0.052603289 13
3.7249014 -0.48112634 0.14093679 10
3.6385407 -0.47281024 -0.46894526 12
3.7458389 -0.49019939 0.23069143 100
3.6681471 -0.47824982 -0.38462099 13
3.7574096 -0.49274576 0.32091323 15
3.6623058 -0.47855172 -0.296363 100
3.6780906 -0.48226255 -0.21000381 88
3.689986 -0.48483178 -0.12298618 93
3.6878886 -0.48627612 -0.035378337 86
3.7432737 -0.49512336 0.05272232 13
3.7411537 -0.49592188 0.14149627 12
3.6505837 -0.48798987 -0.47080299 35
3.749985 -0.50487757 0.23097304 100
3.6723182 -0.49253342 -0.38531375 37
3.7515666 -0.50684702 0.32052454 67
3.6645122 -0.49257371 -0.29675263 100
3.6644526 -0.49428046 -0.20935884 46
3.6960559 -0.50016063 -0.12333657 31
3.6960254 -0.50122744 -0.035564616 55
3.7315512 -0.50766999 0.052549899 14
3.7412341 -0.51071268 0.14149767 72
3.6469235 -0.50052023 -0.47060597 72
3.7403123 -0.51706374 0.23045191 89
3.6410384 -0.50145167 -0.3822155 86
3.7418995 -0.51905102 0.31981739 78
3.6746533 -0.50703555 -0.29779863 100
3.6746063 -0.50876433 -0.21012655 12
3.6764913 -0.51075613 -0.12275608 12
3.7081542 -0.51612943 -0.03580004 9
3.7238398 -0.52002037 0.052422106 14
3.7513394 -0.52554226 0.14184409 100
3.658941 -0.51518673 -0.47246569 89
3.7582915 -0.53301615 0.23153511 100
3.6471779 -0.51531011 -0.38312003 91
3.738117 -0.5320152 0.31959182 77
3.6610444 -0.51830655 -0.29687572 99
3.6906369 -0.52414548 -0.21125029 12
3.6826344 -0.52479464 -0.12310496 12
3.7003257 -0.52901798 -0.035792857 19
3.7358954 -0.53508818 0.052509308 14
3.7316949 -0.53628904 0.14116478 82
3.6472409 -0.52726632 -0.47124881 93
3.750505 -0.54545623 0.23112446 100
3.6532652 -0.52921695 -0.38402683 87
3.740212 -0.54580182 0.31984758 75
3.6552048 -0.5312475 -0.29661503 100
3.6926758 -0.53832984 -0.21155483 12
3.6887248 -0.53888196 -0.12345612 12
3.708384 -0.54346812 -0.035983473 84
3.7260208 -0.54778582 0.052352294 14
3.72785 -0.54917854 0.14102939 87
3.6414833 -0.53948051 -0.47080106 93
3.7406061 -0.55822206 0.23059374 99
3.6552706 -0.54324383 -0.38451806 40
3.752023 -0.56171161 0.32090294 78
3.6651943 -0.54580235 -0.29766786 97
3.6829021 -0.55016005 -0.21115084 12
3.7085109 -0.55569112 -0.12431327 27
3.7104516 -0.55711162 -0.036101744 100
3.7439015 -0.56383222 0.052499413 60
3.7297966 -0.56357956 0.14109287 84
3.6356852 -0.55166095 -0.47035533 59
3.7327383 -0.57055765 0.23017922 35
3.65535 -0.55635858 -0.38479736 10
3.7520387 -0.57527983 0.32099283 77
3.6770978 -0.56072587 -0.29888758 28
3.6849384 -0.56369621 -0.21145643 12
3.6907644 -0.56637442 -0.12381187 64
3.6986246 -0.56869954 -0.036047608 87
3.7142522 -0.57286805 0.052125692 65
3.7317877 -0.57734317 0.14115748 84
3.6416132 -0.56558985 -0.47145343 11
3.7307518 -0.58374906 0.23010653 11
3.6475179 -0.56828511 -0.38423589 12
3.7539761 -0.58915681 0.32124144 49
3.6751487 -0.57363838 -0.29895896 24
3.6869254 -0.57725298 -0.21176425 12
3.6966975 -0.58057368 -0.12417018 85
3.7065299 -0.58324701 -0.036245137 92
3.7300479 -0.58870673 0.052246407 13
3.7436061 -0.59265381 0.14156017 82
3.6455283 -0.57926226 -0.47229668 11
3.7346373 -0.59785837 0.23037529 11
3.6475084 -0.58138651 -0.38451943 10
3.6711855 -0.58623731 -0.298868 70
3.6888635 -0.59083045 -0.21207432 12
3.6887543 -0.59265363 -0.12402996 93
3.7124028 -0.5975458 -0.036420137 92
3.7319503 -0.60248286 0.052213788 13
3.7336454 -0.60462022 0.14121184 75
3.6395977 -0.59141564 -0.47185707 11
3.7443857 -0.61294746 0.23098524 11
3.6690578 -0.59793109 -0.3871243 14
3.6730843 -0.59975666 -0.29927248 91
3.7025807 -0.60631931 -0.21309514 30
3.69064 -0.60626781 -0.12424961 93
3.7004514 -0.60903698 -0.036371902 82
3.7416995 -0.61755234 0.052264735 13
3.7236478 -0.61652422 0.14086172 40
3.6375425 -0.60416955 -0.47193357 11
3.7383106 -0.62553525 0.23067687 11
3.6689427 -0.61112046 -0.38741249 42
3.6769006 -0.61361659 -0.29984376 100
3.682739 -0.61643595 -0.21211061 76
3.692476 -0.61990207 -0.12447153 90
3.7474434 -0.6320467 0.052270234 13
3.7372787 -0.63227683 0.14132518 91
3.6315298 -0.6162678 -0.47149789 11
3.7499182 -0.64104867 0.23139627 21
3.6511228 -0.62138176 -0.38580471 90
3.6688693 -0.62554586 -0.29942989 100
3.672718 -0.62806624 -0.21171826 31
3.702147 -0.6348772 -0.12498243 93
3.6981404 -0.63543224 -0.036557212 11
3.7334104 -0.64326841 0.052059442 13
3.7391305 -0.64547503 0.14138256 82
3.6469884 -0.63197207 -0.47389293 12
3.7340202 -0.65128893 0.23051596 68
3.6451507 -0.63288426 -0.38545993 97
3.6745536 -0.63976604 -0.30017024 100
3.6962295 -0.64469188 -0.21333301 12
3.6921692 -0.64590645 -0.12477449 88
3.7018423 -0.64947355 -0.036716104 9
3.7234006 -0.65442097 0.051894009 13
3.7467322 -0.66037083 0.14163715 84
3.6409941 -0.64343756 -0.47345728 12
3.755358 -0.66859299 0.23180228 100
3.6547081 -0.64770687 -0.38680902 97
3.6606581 -0.64997995 -0.29926205 100
3.6900535 -0.65699983 -0.21318127 13
3.6859844 -0.65821189 -0.12471592 88
3.6957564 -0.66117334 -0.0367468 11
3.7388511 -0.6706596 0.05199942 19
3.7307682 -0.67051405 0.14107978 82
3.6485243 -0.65791661 -0.47482839 23
3.7492149 -0.68050188 0.23148984 91
3.6564877 -0.6605776 -0.38731223 94
3.6525102 -0.66179222 -0.29885367 87
3.6957467 -0.67071748 -0.21373683 12
3.6877456 -0.67123467 -0.12494215 63
3.7013307 -0.67559767 -0.036935374 9
3.7346654 -0.68283212 0.05189389 100
3.730401 -0.68403643 0.14105879 79
3.63464 -0.6679582 -0.4733673 64
3.7527394 -0.69481766 0.23174228 91
3.66202 -0.67481375 -0.38824415 97
3.6934137 -0.68370807 -0.21382578 13
3.7090092 -0.68849504 -0.12589353 79
3.6813903 -0.68476403 -0.036792502 11
3.7342558 -0.69635999 0.051824391 100
3.7299857 -0.69756436 0.14103559 82
3.7424653 -0.70662773 0.23119295 76
3.6518493 -0.6862213 -0.38748932 94
3.6813056 -0.69292921 -0.30182838 13
3.6871083 -0.69596553 -0.21368004 12
3.6987517 -0.70009071 -0.12569763 93
3.6967039 -0.70101488 -0.037112251 22
3.7121694 -0.70587039 0.05151999 92
3.7373815 -0.71256363 0.14128086 84
3.6455534 -0.69829851 -0.38715857 94
3.6749775 -0.70512009 -0.30159125 12
3.6886117 -0.7096644 -0.21400996 13
3.6923876 -0.71236449 -0.1256474 93
3.7217743 -0.71923816 -0.037562147 78
3.719537 -0.72082329 0.051530987 99
3.7368641 -0.72612959 0.14125301 82
3.6431253 -0.71108615 -0.38725218 67
3.6686096 -0.71727526 -0.30135602 13
3.6959467 -0.72451007 -0.21469764 60
3.6859837 -0.72460234 -0.12559901 93
3.7192707 -0.73234761 -0.037658766 71
3.7327363 -0.73697436 0.051602527 99
3.7304106 -0.73855984 0.14102019 40
3.6484618 -0.725384 -0.38819295 67
3.6700275 -0.73091918 -0.30178246 13
3.6973443 -0.73826665 -0.21503229 100
3.6913075 -0.73910993 -0.12598489 90
3.7262459 -0.7493636 0.051461101 45
3.7162023 -0.7487492 0.14052042 9
3.66553 -0.74341762 -0.30171621 18
3.6870728 -0.74905521 -0.21465267 81
3.7045465 -0.75457585 -0.12665668 93
3.6886337 -0.75344306 -0.037525699 11
3.7453389 -0.76616615 0.051595241 13
3.7155547 -0.76226109 0.14048649 10
3.6767507 -0.75840616 -0.30296725 66
3.6766393 -0.76043046 -0.2142797 85
3.70192 -0.76761055 -0.12675905 93
3.6958094 -0.76843101 -0.03775616 9
3.7367926 -0.77817291 0.051428497 13
3.7403171 -0.78098297 0.14132679 31
3.6817882 -0.77356708 -0.30373609 81
3.6777701 -0.77480626 -0.21462575 83
3.6933765 -0.77942276 -0.12664686 85
3.6970508 -0.78226095 -0.037912205 9
3.7280722 -0.79078686 0.051254615 60
3.7552097 -0.79785061 0.1418266 75
3.6712935 -0.78486067 -0.3031809 91
3.6867979 -0.79019397 -0.21544401 81
3.7137585 -0.80006319 -0.038282007 9
3.7272754 -0.80434555 0.051167324 100
3.7444694 -0.8101095 0.14144281 93
3.6936717 -0.80588591 -0.21615171 34
3.7053564 -0.80981898 -0.12751825 12
3.6953306 -0.8097865 -0.03818512 9
3.7321539 -0.81982768 0.051134393 91
3.7221081 -0.81911367 0.14065924 78
3.6891983 -0.81714702 -0.21613237 12
3.7008688 -0.82112843 -0.12754588 12
3.6810718 -0.81894696 -0.038129985 9
3.7295868 -0.83167136 0.05103305 100
3.7254007 -0.83222091 0.14075953 73
3.6942966 -0.83118451 -0.21671489 38
3.6962032 -0.83306801 -0.12758081 18
3.6978898 -0.83558834 -0.03849633 14
3.7346463 -0.84589773 0.05100663 94
3.7324045 -0.846883 0.14098626 60
3.6837566 -0.84177494 -0.21634787 68
3.6894028 -0.8451975 -0.12755081 60
3.7165897 -0.85278869 -0.038891673 71
3.7279472 -0.85752761 0.050854534 99
3.6903584 -0.85906798 -0.12781292 78
3.7350657 -0.87077969 -0.03929618 97
3.7288599 -0.87156504 0.050776735 100
3.6951563 -0.87385768 -0.12822263 87
3.700866 -0.87669712 -0.038999453 52
3.7375116 -0.88743293 0.0507783 100
3.7018414 -0.88914913 -0.12870763 85
3.69976 -0.8901915 -0.039147571 9
3.734421 -0.90061039 0.050654754 82
3.7065215 -0.90403277 -0.12912264 82
3.7005501 -0.9041546 -0.039324224 11
3.7351739 -0.91471076 0.050569654 29
3.7051749 -0.91907907 -0.039555803 11
3.7360346 -0.92816854 0.050488666 100
3.7176685 -0.93530959 -0.039888963 11
3.7230954 -0.93893933 0.050257713 97
3.6988924 -0.944516 -0.039808869 13
3.7334032 -0.95547503 0.050266579 99
3.7111092 -0.96148479 -0.040153727 63
3.7378271 -0.97061259 0.050212204 100
3.7344465 -0.98379052 0.050075307 71
3.6977599 -0.055959348 -0.32525489 25
3.659745 -0.067715451 -0.32185501 70
3.6555474 -0.079859748 -0.32154405 91
3.6512952 -0.092618711 -0.32123834 84
3.6589451 -0.10565701 -0.32202536 81
3.6625671 -0.11863285 -0.32245186 34
3.6793885 -0.12021104 -0.23656045 73
3.6621623 -0.1315047 -0.32251772 10
3.6789794 -0.13315958 -0.23662685 45
3.6517608 -0.14401494 -0.32167739 13
3.6765306 -0.14603385 -0.2365606 16
3.6512675 -0.15684916 -0.3217485 12
3.6919558 -0.16025932 -0.23771958 78
3.6657302 -0.16917147 -0.41071159 59
3.6626408 -0.17084005 -0.32291722 13
3.6754301 -0.17320246 -0.23671453 99
3.7062082 -0.17572145 -0.15098247 58
3.6472549 -0.18184876 -0.4087382 93
3.6620235 -0.1843553 -0.32299799 31
3.6628768 -0.18557166 -0.23597889 100
3.6955962 -0.18895754 -0.15061955 79
3.6386914 -0.1942524 -0.40790421 93
3.6613901 -0.19722471 -0.32307768 81
3.6682181 -0.19876575 -0.23646556 99
3.6869662 -0.20157132 -0.15034422 45
3.6499269 -0.2076582 -0.4093554 93
3.6567338 -0.20987752 -0.32279617 95
3.6715202 -0.21189097 -0.23681964 99
3.6822841 -0.2143456 -0.15024954 12
3.6492109 -0.22046718 -0.40943992 93
3.6540227 -0.22261433 -0.32269913 87
3.6807516 -0.2253862 -0.2375835 100
3.6835423 -0.22743797 -0.150425 12
3.7002735 -0.23031358 -0.063610539 9
3.656384 -0.23375216 -0.41044065 93
3.6532555 -0.23545574 -0.32278681 84
3.6640427 -0.23736382 -0.23658647 93
3.694725 -0.24115665 -0.15104948 13
3.6815209 -0.24225339 -0.063315794 63
3.639714 -0.24557108 -0.40870327 57
3.656419 -0.24855004 -0.32324141 87
3.6811464 -0.2514171 -0.23789911 25
3.6978827 -0.25443587 -0.15132014 13
3.7106166 -0.25721142 -0.064049631 85
3.6270583 -0.25627097 -0.40741533 11
3.6635978 -0.2606509 -0.32405391 94
3.6723602 -0.26318175 -0.23744522 13
3.6891229 -0.26561832 -0.15104808 13
3.7058327 -0.26872051 -0.064049914 97
3.6439657 -0.27089584 -0.40957141 11
3.6547053 -0.27360368 -0.32342559 94
3.6833482 -0.27760631 -0.23836167 13
3.6881607 -0.27926779 -0.15115014 12
3.7028658 -0.28230575 -0.064110011 99
3.6528883 -0.28505838 -0.41081703 12
3.6398094 -0.28604952 -0.32225299 61
3.68239 -0.29056731 -0.2384613 12
3.6991026 -0.29381812 -0.1517919 25
3.6998498 -0.29587272 -0.064173013 97
3.7185538 -0.29864818 0.023437586 68
3.6479409 -0.29756895 -0.4104605 12
3.6527205 -0.29992875 -0.32363027 39
3.6853654 -0.30383766 -0.2388355 13
3.7020724 -0.30716747 -0.1520741 81
3.688864 -0.30813363 -0.064061686 99
3.7175255 -0.31178689 0.023333173 34
3.6508727 -0.3106918 -0.41102135 12
3.6556542 -0.31308949 -0.32409906 90
3.6703959 -0.31566238 -0.23798855 18
3.6910563 -0.31938887 -0.15173236 82
3.7057891 -0.32198849 -0.064549834 94
3.6925342 -0.3229233 0.023184102 11
3.6419334 -0.32219335 -0.41020709 12
3.6665342 -0.32630631 -0.32529515 91
3.6892424 -0.32963088 -0.23945127 60
3.6860287 -0.33140224 -0.15165615 93
3.6987593 -0.33389434 -0.064524233 100
3.7014403 -0.33618456 0.023097511 11
3.6408753 -0.33433464 -0.41031015 12
3.6575274 -0.33784473 -0.32466921 87
3.6900904 -0.34278864 -0.23969804 91
3.6809621 -0.34338576 -0.15158218 95
3.7015901 -0.34730324 -0.064722165 99
3.7042649 -0.34962359 0.022992101 11
3.7307897 -0.35412031 0.11144471 37
3.6475737 -0.34847385 -0.41134232 16
3.6483665 -0.35060954 -0.32405657 94
3.684871 -0.35605356 -0.23954485 91
3.6876729 -0.35774463 -0.1520603 91
3.6923661 -0.36027199 -0.064669624 82
3.7109623 -0.36411589 0.022884484 11
3.7314968 -0.36816818 0.11137238 100
3.6601508 -0.36323059 -0.41306472 70
3.6510565 -0.3644506 -0.32454222 94
3.6796675 -0.36863738 -0.23938845 15
3.6823967 -0.37100354 -0.15200311 68
3.7156773 -0.3778106 0.022776078 9
3.7222676 -0.38058862 0.11105403 92
3.6470931 -0.37426326 -0.41180217 92
3.6657147 -0.37820929 -0.32611549 91
3.6586018 -0.37896332 -0.23813806 13
3.6990721 -0.38511938 -0.15292507 14
3.6938777 -0.38607296 -0.064987212 12
3.7064793 -0.38947877 0.022648346 9
3.7230103 -0.39330181 0.11098814 89
3.6438861 -0.3862198 -0.41168669 96
3.6723976 -0.39125702 -0.32696104 94
3.6851459 -0.39404947 -0.24016188 13
3.6918461 -0.39688492 -0.15277155 12
3.7044764 -0.40034643 -0.065370262 12
3.7052028 -0.40191999 0.022531148 9
3.7217219 -0.40581542 0.11086997 89
3.7143202 -0.40721223 0.19893733 4
3.6544032 -0.40025434 -0.41318339 93
3.6551981 -0.40248314 -0.32562178 97
3.6758456 -0.40617225 -0.23974024 13
3.6944463 -0.41031736 -0.1530764 31
3.7070684 -0.4138439 -0.065582931 25
3.7018263 -0.41479695 0.022402059 13
3.7203207 -0.41898292 0.1107429 89
3.7486618 -0.42426857 0.20053957 78
3.6490662 -0.41264719 -0.41285014 68
3.6478648 -0.41467735 -0.32519871 52
3.6784062 -0.41954148 -0.24013992 13
3.6910412 -0.42311504 -0.15311401 85
3.6937137 -0.42560026 -0.065450236 60
3.7281473 -0.43163386 0.022308584 84
3.7168865 -0.43192303 0.11056358 92
3.7471974 -0.43754879 0.20040829 13
3.6563239 -0.42861259 -0.32624155 10
3.6768799 -0.43313104 -0.2402759 13
3.6875179 -0.43654364 -0.1531608 79
3.7001884 -0.43954244 -0.065755621 90
3.7365897 -0.44594806 0.022190582 97
3.7153192 -0.44573087 0.11042438 92
3.731796 -0.44921145 0.19960263 10
3.6441128 -0.43866101 -0.41288537 11
3.6646547 -0.44325513 -0.32729447 13
3.6714168 -0.4456045 -0.24013488 13
3.6899755 -0.45000273 -0.15347436 88
3.7045479 -0.45395413 -0.066027373 94
3.7032702 -0.45537993 0.022009384 68
3.7197351 -0.45958567 0.11043708 87
3.738179 -0.46338156 0.19984981 10
3.6406195 -0.45121184 -0.41278902 12
3.7459583 -0.47131088 0.28956082 9
3.6849487 -0.45809564 -0.32943612 23
3.6659114 -0.45804515 -0.2399963 13
3.6845295 -0.46187404 -0.15342295 91
3.7030566 -0.46637085 -0.06615749 94
3.7076514 -0.46919146 0.021880429 13
3.7221963 -0.47257441 0.11040428 89
3.7345955 -0.47638062 0.19961461 9
3.6529379 -0.46504277 -0.41452414 23
3.7364128 -0.48361027 0.28885078 68
3.6458051 -0.46640697 -0.32609341 61
3.6822269 -0.4725062 -0.24135791 43
3.6789653 -0.47436246 -0.15338074 91
3.6994586 -0.47918761 -0.066253215 60
3.692138 -0.48054531 0.021721285 9
3.7344484 -0.48749396 0.11060774 26
3.7428584 -0.49086684 0.19995117 10
3.6571569 -0.47924829 -0.41535848 72
3.7565079 -0.49966419 0.29027078 92
3.6461647 -0.47946835 -0.3264156 90
3.6824865 -0.48636162 -0.24164258 88
3.6812031 -0.48848084 -0.15370965 88
3.6938341 -0.49172968 -0.066307679 12
3.6984098 -0.49461561 0.021589305 9
3.7207808 -0.49982136 0.11016116 65
3.7451239 -0.50464231 0.19999722 10
3.6673155 -0.49361643 -0.41687796 99
3.768538 -0.51548773 0.29111058 97
3.6562676 -0.49446833 -0.32766446 97
3.6728876 -0.49828047 -0.24123831 90
3.6874349 -0.50249445 -0.15421568 88
3.6841166 -0.50436461 -0.066283867 12
3.7125592 -0.50978804 0.021464135 9
3.7210338 -0.51324916 0.11006336 95
3.7432907 -0.51857275 0.19984157 10
3.6518185 -0.50464195 -0.41541499 90
3.77071 -0.52939278 0.29124385 97
3.6585007 -0.50784445 -0.32817626 91
3.6592963 -0.50960582 -0.24056213 24
3.6936138 -0.51655692 -0.15472502 85
3.7061462 -0.52059299 -0.066960067 12
3.7008865 -0.52155364 0.021302965 11
3.7113347 -0.52532852 0.1097177 89
3.7375395 -0.53128904 0.19949953 18
3.6480992 -0.51718456 -0.41533235 96
3.757025 -0.5411154 0.29023871 97
3.6685774 -0.52232844 -0.32942495 84
3.6772952 -0.52521163 -0.24208142 13
3.6878664 -0.52902067 -0.15469374 64
3.7003825 -0.5331161 -0.06702283 12
3.6951201 -0.53407496 0.021146994 26
3.7213972 -0.54012775 0.10985905 89
3.7515271 -0.54676259 0.20010914 60
3.6541746 -0.53109026 -0.41640139 93
3.7531791 -0.55416048 0.28994089 100
3.6569059 -0.5338248 -0.32865819 25
3.6794252 -0.53870898 -0.24250744 13
3.6939452 -0.5431394 -0.1552093 28
3.7044747 -0.54701978 -0.067309141 10
3.720988 -0.55110484 0.021025445 84
3.7116122 -0.55215293 0.10950838 87
3.7259104 -0.55661941 0.19880809 10
3.6562643 -0.5444774 -0.41701388 93
3.7413938 -0.56602788 0.28907347 92
3.6412578 -0.54467589 -0.32752585 9
3.6775577 -0.55165386 -0.242662 13
3.6940401 -0.55644166 -0.15545577 81
3.6926877 -0.55863965 -0.067244217 12
3.7329309 -0.56628561 0.020883333 100
3.7136569 -0.56586796 0.10944809 87
3.7358413 -0.57157683 0.19922066 10
3.6661675 -0.55904603 -0.41854951 96
3.7591646 -0.58226264 0.29032904 97
3.6492183 -0.55893058 -0.32859987 11
3.6716981 -0.56400502 -0.24254464 13
3.6822314 -0.56797945 -0.15515976 76
3.6947069 -0.57226098 -0.067491919 13
3.715148 -0.57709068 0.020705249 89
3.717629 -0.57990259 0.10943337 92
3.7299132 -0.58421147 0.19886817 10
3.6525383 -0.56948459 -0.4173196 93
3.7710555 -0.59705025 0.29116377 100
3.6631298 -0.5735001 -0.33022091 13
3.6816766 -0.57807761 -0.24352096 16
3.6922123 -0.58211452 -0.15585828 88
3.6908481 -0.58434087 -0.067601085 18
3.7092969 -0.58895075 0.020546298 95
3.7414103 -0.59636736 0.10990947 82
3.727994 -0.5967645 0.19871175 10
3.6368179 -0.58017462 -0.41586918 77
3.7413986 -0.60609108 0.28901488 86
3.6591716 -0.58606398 -0.33019871 13
3.6777003 -0.59072292 -0.24354629 60
3.6822984 -0.59388745 -0.15565793 91
3.6987 -0.59891295 -0.067988217 31
3.7052808 -0.60174364 0.020378809 99
3.7377667 -0.6118511 0.19911434 10
3.6367667 -0.59324443 -0.41626221 70
3.7511199 -0.62126291 0.28969383 92
3.6512377 -0.59798288 -0.32981107 11
3.6756513 -0.60366136 -0.24371181 84
3.6802394 -0.60686028 -0.15582417 85
3.7124178 -0.6144973 -0.068512902 12
3.7051711 -0.61515164 0.020212557 89
3.7372339 -0.62282962 0.10957184 13
3.7395923 -0.6257323 0.19913347 10
3.6562808 -0.60949111 -0.41896164 90
3.74897 -0.63456929 0.28952104 76
3.6511285 -0.61112976 -0.33016187 12
3.6853733 -0.61851615 -0.2447062 97
3.6820784 -0.62047046 -0.15617555 88
3.6945031 -0.62500238 -0.068325922 12
3.7050128 -0.62856597 0.020043354 71
3.727186 -0.63474536 0.10920559 13
3.7413676 -0.63963348 0.1991495 10
3.6639655 -0.62393683 -0.42028314 93
3.6549017 -0.62493479 -0.33088386 14
3.6753545 -0.63017094 -0.24432652 100
3.6878095 -0.63475907 -0.15671273 81
3.6883924 -0.63737446 -0.068409175 12
3.7028346 -0.64165479 0.019869518 13
3.7427306 -0.65092665 0.10946424 14
3.7294159 -0.65055597 0.1985082 13
3.6598399 -0.63645929 -0.42022488 100
3.6705143 -0.64012444 -0.33270591 40
3.6633329 -0.64142925 -0.24381088 100
3.699506 -0.6494509 -0.15751873 27
3.706003 -0.65310884 -0.069024995 12
3.7222936 -0.65846074 0.019710671 78
3.7543819 -0.66588026 0.10963126 16
3.7409427 -0.66615081 0.19899191 79
3.6518679 -0.64764506 -0.41969913 96
3.656518 -0.65098369 -0.33177561 11
3.6730156 -0.65571761 -0.24480586 100
3.6815062 -0.65974289 -0.15696481 11
3.7057078 -0.66652626 -0.069249019 10
3.7259209 -0.67264605 0.019534912 100
3.7481365 -0.67846704 0.10935296 100
3.7563412 -0.68252879 0.19966063 93
3.6495051 -0.66109622 -0.41988525 93
3.6640644 -0.66555899 -0.33287579 13
3.678484 -0.67067641 -0.24554627 99
3.6869705 -0.67475921 -0.15752038 12
3.7093019 -0.68065131 -0.069566146 12
3.7098081 -0.68334079 0.019341659 95
3.7279551 -0.68920511 0.10872735 100
3.7461123 -0.69441694 0.1990971 88
3.658942 -0.67600423 -0.42145014 93
3.6557574 -0.67801476 -0.33251244 12
3.6800833 -0.68432605 -0.24600498 40
3.6944592 -0.68953025 -0.15816224 11
3.6950192 -0.69224095 -0.069488972 13
3.7153091 -0.69788271 0.019161548 89
3.7157331 -0.70059001 0.1083013 86
3.7496009 -0.70876974 0.19919196 87
3.6644104 -0.69026983 -0.42255703 96
3.6574395 -0.69093442 -0.33305612 12
3.6816325 -0.69799459 -0.24646671 36
3.7000453 -0.70334595 -0.15870661 11
3.6966715 -0.70535338 -0.069757268 39
3.7168217 -0.71173894 0.018975478 95
3.7350476 -0.71711379 0.10864696 26
3.7353637 -0.71984315 0.19843526 84
3.6543224 -0.70102465 -0.42180994 93
3.6530833 -0.70341641 -0.33305776 11
3.6695268 -0.70845807 -0.24595366 84
3.6976049 -0.71637923 -0.1588961 24
3.6961896 -0.71876526 -0.069992587 78
3.7007232 -0.72160387 0.018785771 92
3.7463109 -0.7329421 0.1087877 11
3.7408447 -0.73391145 0.1986282 84
3.6781514 -0.72082633 -0.3358247 13
3.6749067 -0.72286594 -0.24669768 97
3.7011309 -0.72988188 -0.15935458 85
3.7075663 -0.73379785 -0.070494056 88
3.7001851 -0.7350564 0.018593442 89
3.7478242 -0.74629116 0.10869642 13
3.7343791 -0.7463994 0.19824371 79
3.6678286 -0.73222798 -0.33527794 13
3.6764407 -0.73590934 -0.2471583 97
3.6731076 -0.73793811 -0.1583524 82
3.7010963 -0.74610621 -0.070598841 90
3.7056143 -0.74901778 0.018410858 89
3.7413132 -0.75877279 0.10840242 13
3.7513895 -0.76350957 0.19898422 84
3.6652856 -0.74511176 -0.33547315 15
3.6836712 -0.75078189 -0.24804766 94
3.6940598 -0.75555676 -0.1596553 67
3.694586 -0.75837839 -0.07070598 87
3.6951723 -0.76053649 0.018208366 68
3.7426028 -0.77279395 0.10829546 13
3.7448263 -0.77600658 0.19859375 63
3.6470797 -0.75484192 -0.33418995 47
3.6732416 -0.76215976 -0.24769197 94
3.7051444 -0.77134609 -0.16050187 11
3.6899955 -0.77101254 -0.070861191 30
3.7438405 -0.78683311 0.10818531 13
3.6464095 -0.76805341 -0.33457494 7
3.666687 -0.77427745 -0.2476158 91
3.70051 -0.78399289 -0.16061333 11
3.704942 -0.78767627 -0.071478069 10
3.6996424 -0.78866589 0.017805722 11
3.7371969 -0.79925942 0.10788345 13
3.673763 -0.78921741 -0.24851464 97
3.701699 -0.79784763 -0.1610049 11
3.7121294 -0.80215001 -0.071905032 12
3.726259 -0.80793303 0.017605808 55
3.746161 -0.81496495 0.10795544 13
3.6770153 -0.80273843 -0.24912874 94
3.6951609 -0.80940044 -0.16101851 11
3.7173066 -0.81626159 -0.072289392 18
3.7314184 -0.82211524 0.017406221 84
3.7434764 -0.82755232 0.10775265 65
3.6821685 -0.81671053 -0.24988501 91
3.6983497 -0.82303482 -0.16149785 11
3.6968899 -0.8255477 -0.072086766 67
3.7287097 -0.83463562 0.01720215 94
3.7309842 -0.83799326 0.10731329 100
3.7091494 -0.83907127 -0.16236241 11
3.6862152 -0.83686042 -0.072116613 79
3.7219088 -0.84693921 0.01698431 95
3.7300289 -0.85162395 0.10714175 99
3.7042863 -0.85169792 -0.16248764 13
3.6989164 -0.85337156 -0.072705731 87
3.7150676 -0.85920537 0.016764175 95
3.7309749 -0.86569899 0.10701385 99
3.7071729 -0.8660751 -0.16298762 46
3.6979036 -0.86686367 -0.072973385 85
3.702338 -0.87009412 0.01654188 84
3.7435608 -0.88247842 0.10716157 99
3.6866472 -0.87507838 -0.16237289 66
3.7085278 -0.88307166 -0.073524132 90
3.7327104 -0.8938995 0.1067484 97
3.6918392 -0.89293897 -0.073423937 85
3.7137702 -0.90037936 0.016087335 11
3.7354448 -0.90848595 0.10665707 69
3.6869507 -0.90484434 -0.073594853 87
3.7166369 -0.91424048 0.015866574 11
3.6974094 -0.9211536 -0.074155927 85
3.694032 -0.92263353 0.015637662 11
3.7058585 -0.93706745 -0.074674264 79
3.696492 -0.93777484 0.015388232 9
3.7165134 -0.95667791 0.015140157 11
3.7112539 -0.96930981 0.014897984 19
3.719676 -0.9847644 0.014658581 74
3.7202983 -0.99825805 0.014419805 81
3.6630611 -0.066327251 -0.3378 67
3.6787484 -0.080136351 -0.33942059 99
3.6625462 -0.092705406 -0.33805609 96
3.6482923 -0.10521439 -0.33688074 90
3.6593108 -0.10768273 -0.25066987 51
3.6558909 -0.11826231 -0.33776081 90
3.6689129 -0.12085775 -0.25150576 24
3.6594632 -0.13123436 -0.33827174 77
3.6525681 -0.13259898 -0.25051484 10
3.6610234 -0.14351775 -0.33859268 12
3.6580935 -0.14567249 -0.25107747 11
3.6425939 -0.15631463 -0.33706319 11
3.6695528 -0.15902413 -0.25206575 13
3.6865427 -0.16200577 -0.16562885 48
3.6539896 -0.16962296 -0.33833268 39
3.6809354 -0.17310439 -0.25306609 19
3.6919744 -0.17526682 -0.16606197 91
3.6573501 -0.18328527 -0.33886647 85
3.656424 -0.18493435 -0.25153226 51
3.6913407 -0.1889341 -0.16622457 100
3.6587045 -0.19623166 -0.33920956 96
3.6557531 -0.19844626 -0.25169665 97
3.6807153 -0.20143871 -0.16591182 100
3.66399 -0.20940198 -0.33993089 90
3.6690488 -0.21142091 -0.25283447 94
3.6700482 -0.21387181 -0.16560188 96
3.7089806 -0.21776344 -0.079408556 46
3.6513736 -0.22095145 -0.33896258 90
3.672302 -0.22456142 -0.25328058 81
3.6813164 -0.22685738 -0.16632527 28
3.700249 -0.23039632 -0.079384089 57
3.6465933 -0.2341786 -0.33876285 90
3.6735172 -0.23760565 -0.25358969 13
3.6844826 -0.24073061 -0.16669199 12
3.6954255 -0.24387115 -0.079467237 12
3.6577051 -0.24774906 -0.34005773 100
3.6666813 -0.25079381 -0.25334707 12
3.6856461 -0.25385004 -0.16695964 13
3.6886015 -0.25653085 -0.079497159 19
3.6588764 -0.26008761 -0.34041074 93
3.6519256 -0.26210722 -0.25252539 11
3.6848156 -0.26619419 -0.16712758 13
3.7077112 -0.27028403 -0.080148041 82
3.6758974 -0.27355552 -0.34226826 100
3.6689751 -0.27559033 -0.253966 12
3.6819515 -0.27839282 -0.16720402 18
3.6988518 -0.28214785 -0.080127776 85
3.6997643 -0.28476313 0.0076613454 54
3.6550424 -0.28564 -0.34058234 72
3.6680217 -0.28850129 -0.25414854 12
3.6948862 -0.29307204 -0.16806138 66
3.7038114 -0.2963194 -0.080467641 85
3.7127454 -0.29892263 0.0074620871 85
3.6401553 -0.29740021 -0.33945251 13
3.686861 -0.30361015 -0.25575867 14
3.6918826 -0.30594057 -0.16815457 99
3.6908317 -0.30845064 -0.080365956 93
3.7036905 -0.31207764 0.0072699813 55
3.6589172 -0.31243715 -0.34152919 67
3.6619501 -0.31463289 -0.254251 12
3.6947541 -0.31993422 -0.16854632 100
3.6857293 -0.32180718 -0.080470949 91
3.7185619 -0.32651684 0.0070593981 13
3.6638958 -0.32450503 -0.34226656 92
3.6569405 -0.3265368 -0.25415131 13
3.683809 -0.33080503 -0.16824633 100
3.6927006 -0.33421099 -0.080842137 88
3.7155027 -0.33884293 0.0068731634 12
3.7143452 -0.34141177 0.09512648 27
3.668663 -0.33853981 -0.3430371 93
3.6756821 -0.34116435 -0.25576562 32
3.6746478 -0.34373063 -0.16807368 100
3.7074201 -0.34933802 -0.081442714 43
3.7023849 -0.35090822 0.0066851703 12
3.7370667 -0.35675809 0.095454618 78
3.655591 -0.3503359 -0.34210801 96
3.6704669 -0.35437813 -0.25569338 64
3.6734595 -0.35668528 -0.16827574 100
3.7181587 -0.36354724 -0.08194086 12
3.7050977 -0.36503878 0.0064651398 12
3.7338502 -0.36981609 0.095202982 100
3.6543748 -0.36317483 -0.34231141 93
3.6751971 -0.36786327 -0.25632417 12
3.6762033 -0.3700183 -0.1686725 100
3.7009835 -0.37513432 -0.081757426 12
3.7078207 -0.37853757 0.0062511293 12
3.7126787 -0.38109681 0.094551831 92
3.6610403 -0.37678951 -0.34327218 96
3.6580412 -0.37921989 -0.25539631 11
3.6789 -0.38337445 -0.16907331 97
3.6976988 -0.38800499 -0.081919938 13
3.7045262 -0.39145547 0.0060408739 10
3.7213137 -0.3952699 0.094557554 95
3.7419257 -0.40016994 0.18412648 19
3.6636941 -0.39005062 -0.3438603 93
3.6606958 -0.39249912 -0.25589234 12
3.6875093 -0.39736891 -0.16976553 66
3.7043135 -0.40189093 -0.082332253 12
3.7131224 -0.40560451 0.0058107106 24
3.7239304 -0.4088797 0.094427109 95
3.7385638 -0.41324759 0.18381625 87
3.65838 -0.40249962 -0.34369782 48
3.6672704 -0.40622234 -0.25667715 12
3.6901071 -0.41079143 -0.17017487 85
3.7029252 -0.41497272 -0.082551658 13
3.6938279 -0.41680545 0.0056157736 64
3.7344494 -0.42337739 0.094467133 95
3.7431011 -0.42717671 0.18386309 13
3.649065 -0.41448534 -0.34316081 11
3.6718836 -0.41913199 -0.25731283 12
3.6847146 -0.42336112 -0.1702044 97
3.7055383 -0.42783627 -0.082862496 13
3.7123401 -0.43143961 0.0053739874 85
3.7190816 -0.43505186 0.093935966 92
3.7476628 -0.44047683 0.18391702 13
3.6457205 -0.42643821 -0.34318209 11
3.6763778 -0.4327231 -0.25796381 13
3.6773684 -0.4350242 -0.17012966 99
3.7100196 -0.44160327 -0.083238065 64
3.7128382 -0.44480276 0.0051429002 93
3.7155964 -0.44800484 0.093663335 95
3.7659934 -0.4560954 0.18458468 13
3.7447546 -0.45654404 0.27313688 1
3.6441646 -0.43988204 -0.34341806 11
3.6768589 -0.44588852 -0.25833386 14
3.6857066 -0.44979832 -0.17085028 100
3.6905448 -0.45325044 -0.083032817 66
3.7192471 -0.45888105 0.0048981933 93
3.7180238 -0.46164957 0.093517154 95
3.7405388 -0.46727559 0.18325867 13
3.7590339 -0.4717806 0.27399084 75
3.6465909 -0.45315233 -0.34402487 12
3.6732538 -0.45923334 -0.25843373 47
3.6861324 -0.46302947 -0.17117912 100
3.6989017 -0.46748999 -0.083515733 18
3.7076566 -0.47148287 0.0046671061 94
3.7508276 -0.48202997 0.18355772 13
3.7731702 -0.48779374 0.27482682 96
3.6588507 -0.46765876 -0.34558204 12
3.661762 -0.47093251 -0.25795391 94
3.6726351 -0.47454423 -0.17083639 100
3.7151408 -0.48278522 -0.084203511 12
3.6961069 -0.48335201 0.0044452874 69
3.7207463 -0.48875454 0.093169153 11
3.7491677 -0.4953486 0.18331423 13
3.7457628 -0.49792188 0.27281323 84
3.6592019 -0.48075691 -0.34600821 33
3.6680446 -0.48482278 -0.25876376 91
3.6789172 -0.48850319 -0.17146191 100
3.7095046 -0.49539369 -0.084345907 13
3.7083216 -0.49822578 0.004177752 13
3.7210431 -0.50220054 0.092967585 11
3.7553861 -0.50969768 0.18342476 13
3.7460284 -0.51150841 0.27270129 88
3.6535835 -0.49309361 -0.34586957 70
3.6703193 -0.49824497 -0.25929204 94
3.6772254 -0.50147092 -0.17170513 100
3.6998622 -0.50744492 -0.084390968 13
3.7125487 -0.51213598 0.0039197532 13
3.7074192 -0.51380169 0.09246254 14
3.7536297 -0.52303195 0.18317331 17
3.7502003 -0.52563703 0.27285674 87
3.6617382 -0.50724006 -0.34706172 86
3.6685913 -0.51115775 -0.25953776 97
3.6853871 -0.51576734 -0.17243633 88
3.6941447 -0.51997256 -0.084539384 13
3.710779 -0.52527028 0.0036688475 40
3.7313995 -0.53047377 0.092765838 71
3.7439096 -0.53526819 0.18256152 100
3.7484829 -0.5383116 0.27261385 87
3.6481409 -0.51847732 -0.3461709 16
3.6590025 -0.52233166 -0.25920075 87
3.7043185 -0.53401732 -0.085082322 12
3.7011328 -0.53663421 0.0034430353 75
3.7374885 -0.54481262 0.092679262 100
3.736223 -0.54705918 0.18204913 100
3.762434 -0.55389285 0.27343822 91
3.6562896 -0.53203064 -0.34735873 12
3.6611412 -0.53576225 -0.25974014 31
3.6838388 -0.5413717 -0.17302653 12
3.7143466 -0.54879063 -0.085642993 12
3.7032373 -0.55029613 0.0031773178 90
3.7238283 -0.5556863 0.092177182 99
3.7422464 -0.56147176 0.18214315 71
3.7448261 -0.56430948 0.27210465 91
3.6544416 -0.54486942 -0.3476136 11
3.6692481 -0.54942489 -0.26070186 10
3.6819627 -0.55435574 -0.17328486 13
3.7085862 -0.5606724 -0.085789591 13
3.7053893 -0.5633235 0.0029205112 93
3.710041 -0.56713307 0.091660082 92
3.7522664 -0.57585317 0.18242335 14
3.7409084 -0.57733774 0.2717028 82
3.6329467 -0.55416185 -0.34595728 12
3.7008886 -0.5672974 -0.26340738 28
3.6899211 -0.56880325 -0.17403385 39
3.7066453 -0.57376719 -0.086054146 61
3.707397 -0.57702684 0.0026464788 90
3.7021511 -0.57938665 0.091267288 76
3.7561054 -0.59074247 0.18240547 13
3.7369468 -0.59034503 0.27129751 63
3.6565173 -0.57141799 -0.3487052 12
3.6633198 -0.57558042 -0.26109523 64
3.6839004 -0.5818556 -0.17411849 76
3.6966531 -0.58629817 -0.086131662 97
3.7132077 -0.59201598 0.0023455946 90
3.7579124 -0.60535991 0.18229412 13
3.7486098 -0.60646254 0.27195433 67
3.6544316 -0.58489877 -0.34898469 12
3.671077 -0.59064382 -0.26209679 95
3.6937258 -0.59668767 -0.17497447 85
3.6885948 -0.59907371 -0.08626318 85
3.6993065 -0.60328341 0.0021002023 90
3.7197242 -0.60972244 0.091170609 11
3.7479305 -0.61744463 0.18166222 13
3.7741051 -0.62421107 0.27356243 93
3.6466024 -0.59615713 -0.34866908 11
3.6671605 -0.60259944 -0.26221079 97
3.6838713 -0.60779631 -0.17484364 97
3.6984708 -0.6133464 -0.086832225 68
3.7012744 -0.6163522 0.0018280474 93
3.7177241 -0.6222468 0.090905845 11
3.7537954 -0.63137025 0.1817473 13
3.74646 -0.63278103 0.2715421 84
3.6583941 -0.61054033 -0.35026354 12
3.6730516 -0.61613208 -0.26304984 97
3.6818705 -0.62013048 -0.17510691 97
3.7063191 -0.62736756 -0.087354839 15
3.6953032 -0.6281426 0.0015719859 87
3.7058182 -0.63313442 0.090430051 9
3.7576396 -0.64501375 0.18173994 53
3.7325788 -0.64347243 0.27046347 84
3.6622734 -0.62371343 -0.35109946 39
3.6828289 -0.63036108 -0.2641823 97
3.6837699 -0.63311303 -0.17556968 48
3.7101719 -0.64078784 -0.087778836 12
3.7149367 -0.64420229 0.001246783 16
3.7195151 -0.64827293 0.090490624 9
3.7555246 -0.65768766 0.1814646 100
3.7403076 -0.65776175 0.270861 75
3.6579242 -0.63752592 -0.35121787 81
3.6686194 -0.64261085 -0.26362616 100
3.6774142 -0.64672327 -0.17568609 13
3.6978741 -0.65351135 -0.087836117 12
3.7044847 -0.65795851 0.00093585532 36
3.7012839 -0.66005218 0.089841843 11
3.7392428 -0.66996318 0.18052755 100
3.7435915 -0.67409092 0.27092621 21
3.6753285 -0.65374547 -0.35341477 86
3.6624575 -0.65483558 -0.26362306 94
3.6889484 -0.66207647 -0.17666313 13
3.7034888 -0.66794318 -0.088334441 12
3.7061477 -0.67175436 0.00063297432 69
3.7088482 -0.67490554 0.08975473 11
3.7329943 -0.68254274 0.18005598 92
3.6554093 -0.66354787 -0.35198247 46
3.664113 -0.66841245 -0.26420301 94
3.682719 -0.67437911 -0.17675871 13
3.7208576 -0.68452573 -0.08915022 30
3.6979167 -0.6838069 0.00035369676 78
3.7163548 -0.68981934 0.089662388 14
3.7345688 -0.69650763 0.17993094 100
3.651144 -0.67603022 -0.35208321 11
3.6755345 -0.6837765 -0.26551297 70
3.6803799 -0.68735737 -0.17705476 13
3.7145514 -0.69694644 -0.089345783 91
3.6994851 -0.69760686 4.3126754e-05 90
3.721837 -0.70443279 0.08952412 22
3.7400227 -0.71121591 0.17997618 99
3.6390033 -0.68705899 -0.35142037 11
